ply
format ascii 1.0
element vertex 60
property float x
property float y
property float z
property int primitive_index
end_header
0.351846188306808472 -1.46846502957487246e-07 -0.049077644944190979 0
0.332782208919525146 0.114244125783443451 -0.049077644944190979 0
0.277656108140945435 0.216108262538909912 -0.049077644944190979 0
0.192441627383232117 0.294553697109222412 -0.049077644944190979 0
0.0863731354475021362 0.341079622507095337 -0.049077644944190979 0
-0.0290552284568548203 0.350644320249557495 -0.049077644944190979 0
-0.141335010528564453 0.322211205959320068 -0.049077644944190979 0
-0.238298952579498291 0.258861511945724487 -0.049077644944190979 0
-0.309439480304718018 0.167460143566131592 -0.049077644944190979 0
-0.347047477960586548 0.0579118318855762482 -0.049077644944190979 0
-0.347047477960586548 -0.0579121261835098267 -0.049077644944190979 0
-0.309439480304718018 -0.167460426688194275 -0.049077644944190979 0
-0.238298952579498291 -0.258861809968948364 -0.049077644944190979 0
-0.141335010528564453 -0.322211503982543945 -0.049077644944190979 0
-0.0290552284568548203 -0.350644618272781372 -0.049077644944190979 0
0.0863731354475021362 -0.341079920530319214 -0.049077644944190979 0
0.192441627383232117 -0.294553995132446289 -0.049077644944190979 0
0.277656108140945435 -0.216108560562133789 -0.049077644944190979 0
0.332782208919525146 -0.114244416356086731 -0.049077644944190979 0
0.351846188306808472 -1.46846502957487246e-07 -0.049077644944190979 0
0.351846188306808472 -1.46846502957487246e-07 0.049077644944190979 1
0.332782208919525146 0.114244125783443451 0.049077644944190979 1
0.277656108140945435 0.216108262538909912 0.049077644944190979 1
0.192441627383232117 0.294553697109222412 0.049077644944190979 1
0.0863731354475021362 0.341079622507095337 0.049077644944190979 1
-0.0290552284568548203 0.350644320249557495 0.049077644944190979 1
-0.141335010528564453 0.322211205959320068 0.049077644944190979 1
-0.238298952579498291 0.258861511945724487 0.049077644944190979 1
-0.309439480304718018 0.167460143566131592 0.049077644944190979 1
-0.347047477960586548 0.0579118318855762482 0.049077644944190979 1
-0.347047477960586548 -0.0579121261835098267 0.049077644944190979 1
-0.309439480304718018 -0.167460426688194275 0.049077644944190979 1
-0.238298952579498291 -0.258861809968948364 0.049077644944190979 1
-0.141335010528564453 -0.322211503982543945 0.049077644944190979 1
-0.0290552284568548203 -0.350644618272781372 0.049077644944190979 1
0.0863731354475021362 -0.341079920530319214 0.049077644944190979 1
0.192441627383232117 -0.294553995132446289 0.049077644944190979 1
0.277656108140945435 -0.216108560562133789 0.049077644944190979 1
0.332782208919525146 -0.114244416356086731 0.049077644944190979 1
0.351846188306808472 -1.46846502957487246e-07 0.049077644944190979 1
0.351846188306808472 -1.46846502957487246e-07 -0.049077644944190979 2
0.351846188306808472 -1.46846502957487246e-07 -0.0439115762710571289 2
0.351846188306808472 -1.46846502957487246e-07 -0.0387455113232135773 2
0.351846188306808472 -1.46846502957487246e-07 -0.0335794426500797272 2
0.351846188306808472 -1.46846502957487246e-07 -0.0284133739769458771 2
0.351846188306808472 -1.46846502957487246e-07 -0.0232473071664571762 2
0.351846188306808472 -1.46846502957487246e-07 -0.0180812384933233261 2
0.351846188306808472 -1.46846502957487246e-07 -0.0129151688888669014 2
0.351846188306808472 -1.46846502957487246e-07 -0.00774910347536206245 2
0.351846188306808472 -1.46846502957487246e-07 -0.00258303363807499409 2
0.351846188306808472 -1.46846502957487246e-07 0.00258303224109113216 2
0.351846188306808472 -1.46846502957487246e-07 0.00774910161271691322 2
0.351846188306808472 -1.46846502957487246e-07 0.0129151679575443268 2
0.351846188306808472 -1.46846502957487246e-07 0.0180812403559684753 2
0.351846188306808472 -1.46846502957487246e-07 0.0232473071664571762 2
0.351846188306808472 -1.46846502957487246e-07 0.0284133721143007278 2
0.351846188306808472 -1.46846502957487246e-07 0.0335794389247894287 2
0.351846188306808472 -1.46846502957487246e-07 0.0387455113232135773 2
0.351846188306808472 -1.46846502957487246e-07 0.0439115762710571289 2
0.351846188306808472 -1.46846502957487246e-07 0.049077644944190979 2
