ply
format ascii 1.0
element vertex 712
property float x
property float y
property float z
property int primitive_index
end_header
0.240736871957778931 -0.35184633731842041 0.049077644944190979 1
0.27777332067489624 -0.35184633731842041 0.049077644944190979 1
0.31480976939201355 -0.35184633731842041 0.049077644944190979 1
0.351846188306808472 -0.35184633731842041 0.049077644944190979 1
-0.351846188306808472 -0.314809918403625488 0.049077644944190979 1
-0.31480976939201355 -0.314809918403625488 0.049077644944190979 1
-0.27777332067489624 -0.314809918403625488 0.049077644944190979 1
-0.240736871957778931 -0.314809918403625488 0.049077644944190979 1
-0.203700438141822815 -0.314809918403625488 0.049077644944190979 1
-0.166663989424705505 -0.314809918403625488 0.049077644944190979 1
-0.129627540707588196 -0.314809918403625488 0.049077644944190979 1
-0.0925910994410514832 -0.314809918403625488 0.049077644944190979 1
-0.055554661899805069 -0.314809918403625488 0.049077644944190979 1
-0.0185182206332683563 -0.314809918403625488 0.049077644944190979 1
0.0185182206332683563 -0.314809918403625488 0.049077644944190979 1
0.055554661899805069 -0.314809918403625488 0.049077644944190979 1
0.0925910994410514832 -0.314809918403625488 0.049077644944190979 1
0.129627540707588196 -0.314809918403625488 0.049077644944190979 1
0.166663989424705505 -0.314809918403625488 0.049077644944190979 1
0.203700438141822815 -0.314809918403625488 0.049077644944190979 1
0.240736871957778931 -0.314809918403625488 0.049077644944190979 1
0.27777332067489624 -0.314809918403625488 0.049077644944190979 1
0.31480976939201355 -0.314809918403625488 0.049077644944190979 1
0.351846188306808472 -0.314809918403625488 0.049077644944190979 1
-0.351846188306808472 -0.277773469686508179 0.049077644944190979 1
-0.31480976939201355 -0.277773469686508179 0.049077644944190979 1
-0.27777332067489624 -0.277773469686508179 0.049077644944190979 1
-0.240736871957778931 -0.277773469686508179 0.049077644944190979 1
-0.203700438141822815 -0.277773469686508179 0.049077644944190979 1
-0.166663989424705505 -0.277773469686508179 0.049077644944190979 1
-0.129627540707588196 -0.277773469686508179 0.049077644944190979 1
-0.0925910994410514832 -0.277773469686508179 0.049077644944190979 1
-0.055554661899805069 -0.277773469686508179 0.049077644944190979 1
-0.0185182206332683563 -0.277773469686508179 0.049077644944190979 1
0.0185182206332683563 -0.277773469686508179 0.049077644944190979 1
0.055554661899805069 -0.277773469686508179 0.049077644944190979 1
0.0925910994410514832 -0.277773469686508179 0.049077644944190979 1
0.129627540707588196 -0.277773469686508179 0.049077644944190979 1
0.166663989424705505 -0.277773469686508179 0.049077644944190979 1
0.203700438141822815 -0.277773469686508179 0.049077644944190979 1
0.240736871957778931 -0.277773469686508179 0.049077644944190979 1
0.27777332067489624 -0.277773469686508179 0.049077644944190979 1
0.31480976939201355 -0.277773469686508179 0.049077644944190979 1
0.351846188306808472 -0.277773469686508179 0.049077644944190979 1
-0.351846188306808472 -0.240737020969390869 0.049077644944190979 1
-0.31480976939201355 -0.240737020969390869 0.049077644944190979 1
-0.27777332067489624 -0.240737020969390869 0.049077644944190979 1
-0.240736871957778931 -0.240737020969390869 0.049077644944190979 1
-0.203700438141822815 -0.240737020969390869 0.049077644944190979 1
-0.166663989424705505 -0.240737020969390869 0.049077644944190979 1
-0.129627540707588196 -0.240737020969390869 0.049077644944190979 1
-0.0925910994410514832 -0.240737020969390869 0.049077644944190979 1
-0.055554661899805069 -0.240737020969390869 0.049077644944190979 1
-0.0185182206332683563 -0.240737020969390869 0.049077644944190979 1
0.0185182206332683563 -0.240737020969390869 0.049077644944190979 1
0.055554661899805069 -0.240737020969390869 0.049077644944190979 1
0.0925910994410514832 -0.240737020969390869 0.049077644944190979 1
0.129627540707588196 -0.240737020969390869 0.049077644944190979 1
0.166663989424705505 -0.240737020969390869 0.049077644944190979 1
0.203700438141822815 -0.240737020969390869 0.049077644944190979 1
0.240736871957778931 -0.240737020969390869 0.049077644944190979 1
0.27777332067489624 -0.240737020969390869 0.049077644944190979 1
0.31480976939201355 -0.240737020969390869 0.049077644944190979 1
0.351846188306808472 -0.240737020969390869 0.049077644944190979 1
-0.351846188306808472 -0.203700587153434753 0.049077644944190979 1
-0.31480976939201355 -0.203700587153434753 0.049077644944190979 1
-0.27777332067489624 -0.203700587153434753 0.049077644944190979 1
-0.240736871957778931 -0.203700587153434753 0.049077644944190979 1
-0.203700438141822815 -0.203700587153434753 0.049077644944190979 1
-0.166663989424705505 -0.203700587153434753 0.049077644944190979 1
-0.129627540707588196 -0.203700587153434753 0.049077644944190979 1
-0.0925910994410514832 -0.203700587153434753 0.049077644944190979 1
-0.055554661899805069 -0.203700587153434753 0.049077644944190979 1
-0.0185182206332683563 -0.203700587153434753 0.049077644944190979 1
0.0185182206332683563 -0.203700587153434753 0.049077644944190979 1
0.055554661899805069 -0.203700587153434753 0.049077644944190979 1
0.0925910994410514832 -0.203700587153434753 0.049077644944190979 1
0.129627540707588196 -0.203700587153434753 0.049077644944190979 1
0.166663989424705505 -0.203700587153434753 0.049077644944190979 1
0.203700438141822815 -0.203700587153434753 0.049077644944190979 1
0.240736871957778931 -0.203700587153434753 0.049077644944190979 1
0.27777332067489624 -0.203700587153434753 0.049077644944190979 1
0.31480976939201355 -0.203700587153434753 0.049077644944190979 1
0.351846188306808472 -0.203700587153434753 0.049077644944190979 1
-0.351846188306808472 -0.16666412353515625 0.049077644944190979 1
-0.31480976939201355 -0.16666412353515625 0.049077644944190979 1
-0.27777332067489624 -0.16666412353515625 0.049077644944190979 1
-0.240736871957778931 -0.16666412353515625 0.049077644944190979 1
-0.203700438141822815 -0.16666412353515625 0.049077644944190979 1
-0.166663989424705505 -0.16666412353515625 0.049077644944190979 1
-0.129627540707588196 -0.16666412353515625 0.049077644944190979 1
-0.0925910994410514832 -0.16666412353515625 0.049077644944190979 1
-0.055554661899805069 -0.16666412353515625 0.049077644944190979 1
-0.0185182206332683563 -0.16666412353515625 0.049077644944190979 1
0.0185182206332683563 -0.16666412353515625 0.049077644944190979 1
0.055554661899805069 -0.16666412353515625 0.049077644944190979 1
0.0925910994410514832 -0.16666412353515625 0.049077644944190979 1
0.129627540707588196 -0.16666412353515625 0.049077644944190979 1
0.166663989424705505 -0.16666412353515625 0.049077644944190979 1
0.203700438141822815 -0.16666412353515625 0.049077644944190979 1
0.240736871957778931 -0.16666412353515625 0.049077644944190979 1
0.27777332067489624 -0.16666412353515625 0.049077644944190979 1
0.31480976939201355 -0.16666412353515625 0.049077644944190979 1
0.351846188306808472 -0.16666412353515625 0.049077644944190979 1
-0.351846188306808472 -0.129627689719200134 0.049077644944190979 1
-0.31480976939201355 -0.129627689719200134 0.049077644944190979 1
-0.27777332067489624 -0.129627689719200134 0.049077644944190979 1
-0.240736871957778931 -0.129627689719200134 0.049077644944190979 1
-0.203700438141822815 -0.129627689719200134 0.049077644944190979 1
-0.166663989424705505 -0.129627689719200134 0.049077644944190979 1
-0.129627540707588196 -0.129627689719200134 0.049077644944190979 1
-0.0925910994410514832 -0.129627689719200134 0.049077644944190979 1
-0.055554661899805069 -0.129627689719200134 0.049077644944190979 1
-0.0185182206332683563 -0.129627689719200134 0.049077644944190979 1
0.0185182206332683563 -0.129627689719200134 0.049077644944190979 1
0.055554661899805069 -0.129627689719200134 0.049077644944190979 1
0.0925910994410514832 -0.129627689719200134 0.049077644944190979 1
0.129627540707588196 -0.129627689719200134 0.049077644944190979 1
0.166663989424705505 -0.129627689719200134 0.049077644944190979 1
0.203700438141822815 -0.129627689719200134 0.049077644944190979 1
0.240736871957778931 -0.129627689719200134 0.049077644944190979 1
0.27777332067489624 -0.129627689719200134 0.049077644944190979 1
0.31480976939201355 -0.129627689719200134 0.049077644944190979 1
0.351846188306808472 -0.129627689719200134 0.049077644944190979 1
-0.351846188306808472 -0.0925912484526634216 0.049077644944190979 1
-0.31480976939201355 -0.0925912484526634216 0.049077644944190979 1
-0.27777332067489624 -0.0925912484526634216 0.049077644944190979 1
-0.240736871957778931 -0.0925912484526634216 0.049077644944190979 1
-0.203700438141822815 -0.0925912484526634216 0.049077644944190979 1
-0.166663989424705505 -0.0925912484526634216 0.049077644944190979 1
-0.129627540707588196 -0.0925912484526634216 0.049077644944190979 1
-0.0925910994410514832 -0.0925912484526634216 0.049077644944190979 1
-0.055554661899805069 -0.0925912484526634216 0.049077644944190979 1
-0.0185182206332683563 -0.0925912484526634216 0.049077644944190979 1
0.0185182206332683563 -0.0925912484526634216 0.049077644944190979 1
0.055554661899805069 -0.0925912484526634216 0.049077644944190979 1
0.0925910994410514832 -0.0925912484526634216 0.049077644944190979 1
0.129627540707588196 -0.0925912484526634216 0.049077644944190979 1
0.166663989424705505 -0.0925912484526634216 0.049077644944190979 1
0.203700438141822815 -0.0925912484526634216 0.049077644944190979 1
0.240736871957778931 -0.0925912484526634216 0.049077644944190979 1
0.27777332067489624 -0.0925912484526634216 0.049077644944190979 1
0.31480976939201355 -0.0925912484526634216 0.049077644944190979 1
0.351846188306808472 -0.0925912484526634216 0.049077644944190979 1
-0.351846188306808472 -0.0555548109114170074 0.049077644944190979 1
-0.31480976939201355 -0.0555548109114170074 0.049077644944190979 1
-0.27777332067489624 -0.0555548109114170074 0.049077644944190979 1
-0.240736871957778931 -0.0555548109114170074 0.049077644944190979 1
-0.203700438141822815 -0.0555548109114170074 0.049077644944190979 1
-0.166663989424705505 -0.0555548109114170074 0.049077644944190979 1
-0.129627540707588196 -0.0555548109114170074 0.049077644944190979 1
-0.0925910994410514832 -0.0555548109114170074 0.049077644944190979 1
-0.055554661899805069 -0.0555548109114170074 0.049077644944190979 1
-0.0185182206332683563 -0.0555548109114170074 0.049077644944190979 1
0.0185182206332683563 -0.0555548109114170074 0.049077644944190979 1
0.055554661899805069 -0.0555548109114170074 0.049077644944190979 1
0.0925910994410514832 -0.0555548109114170074 0.049077644944190979 1
0.129627540707588196 -0.0555548109114170074 0.049077644944190979 1
0.166663989424705505 -0.0555548109114170074 0.049077644944190979 1
0.203700438141822815 -0.0555548109114170074 0.049077644944190979 1
0.240736871957778931 -0.0555548109114170074 0.049077644944190979 1
0.27777332067489624 -0.0555548109114170074 0.049077644944190979 1
0.31480976939201355 -0.0555548109114170074 0.049077644944190979 1
0.351846188306808472 -0.0555548109114170074 0.049077644944190979 1
-0.351846188306808472 -0.0185183677822351456 0.049077644944190979 1
-0.31480976939201355 -0.0185183677822351456 0.049077644944190979 1
-0.27777332067489624 -0.0185183677822351456 0.049077644944190979 1
-0.240736871957778931 -0.0185183677822351456 0.049077644944190979 1
-0.203700438141822815 -0.0185183677822351456 0.049077644944190979 1
-0.166663989424705505 -0.0185183677822351456 0.049077644944190979 1
-0.129627540707588196 -0.0185183677822351456 0.049077644944190979 1
-0.0925910994410514832 -0.0185183677822351456 0.049077644944190979 1
-0.055554661899805069 -0.0185183677822351456 0.049077644944190979 1
-0.0185182206332683563 -0.0185183677822351456 0.049077644944190979 1
0.0185182206332683563 -0.0185183677822351456 0.049077644944190979 1
0.055554661899805069 -0.0185183677822351456 0.049077644944190979 1
0.0925910994410514832 -0.0185183677822351456 0.049077644944190979 1
0.129627540707588196 -0.0185183677822351456 0.049077644944190979 1
0.166663989424705505 -0.0185183677822351456 0.049077644944190979 1
0.203700438141822815 -0.0185183677822351456 0.049077644944190979 1
0.240736871957778931 -0.0185183677822351456 0.049077644944190979 1
0.27777332067489624 -0.0185183677822351456 0.049077644944190979 1
0.31480976939201355 -0.0185183677822351456 0.049077644944190979 1
0.351846188306808472 -0.0185183677822351456 0.049077644944190979 1
-0.351846188306808472 0.0185180734843015671 0.049077644944190979 1
-0.31480976939201355 0.0185180734843015671 0.049077644944190979 1
-0.27777332067489624 0.0185180734843015671 0.049077644944190979 1
-0.240736871957778931 0.0185180734843015671 0.049077644944190979 1
-0.203700438141822815 0.0185180734843015671 0.049077644944190979 1
-0.166663989424705505 0.0185180734843015671 0.049077644944190979 1
-0.129627540707588196 0.0185180734843015671 0.049077644944190979 1
-0.0925910994410514832 0.0185180734843015671 0.049077644944190979 1
-0.055554661899805069 0.0185180734843015671 0.049077644944190979 1
-0.0185182206332683563 0.0185180734843015671 0.049077644944190979 1
0.0185182206332683563 0.0185180734843015671 0.049077644944190979 1
0.055554661899805069 0.0185180734843015671 0.049077644944190979 1
0.0925910994410514832 0.0185180734843015671 0.049077644944190979 1
0.129627540707588196 0.0185180734843015671 0.049077644944190979 1
0.166663989424705505 0.0185180734843015671 0.049077644944190979 1
0.203700438141822815 0.0185180734843015671 0.049077644944190979 1
0.240736871957778931 0.0185180734843015671 0.049077644944190979 1
0.27777332067489624 0.0185180734843015671 0.049077644944190979 1
0.31480976939201355 0.0185180734843015671 0.049077644944190979 1
0.351846188306808472 0.0185180734843015671 0.049077644944190979 1
-0.351846188306808472 0.055554516613483429 0.049077644944190979 1
-0.31480976939201355 0.055554516613483429 0.049077644944190979 1
-0.27777332067489624 0.055554516613483429 0.049077644944190979 1
-0.240736871957778931 0.055554516613483429 0.049077644944190979 1
-0.203700438141822815 0.055554516613483429 0.049077644944190979 1
-0.166663989424705505 0.055554516613483429 0.049077644944190979 1
-0.129627540707588196 0.055554516613483429 0.049077644944190979 1
-0.0925910994410514832 0.055554516613483429 0.049077644944190979 1
-0.055554661899805069 0.055554516613483429 0.049077644944190979 1
-0.0185182206332683563 0.055554516613483429 0.049077644944190979 1
0.0185182206332683563 0.055554516613483429 0.049077644944190979 1
0.055554661899805069 0.055554516613483429 0.049077644944190979 1
0.0925910994410514832 0.055554516613483429 0.049077644944190979 1
0.129627540707588196 0.055554516613483429 0.049077644944190979 1
0.166663989424705505 0.055554516613483429 0.049077644944190979 1
0.203700438141822815 0.055554516613483429 0.049077644944190979 1
0.240736871957778931 0.055554516613483429 0.049077644944190979 1
0.27777332067489624 0.055554516613483429 0.049077644944190979 1
0.31480976939201355 0.055554516613483429 0.049077644944190979 1
0.351846188306808472 0.055554516613483429 0.049077644944190979 1
-0.351846188306808472 0.0925909504294395447 0.049077644944190979 1
-0.31480976939201355 0.0925909504294395447 0.049077644944190979 1
-0.27777332067489624 0.0925909504294395447 0.049077644944190979 1
-0.240736871957778931 0.0925909504294395447 0.049077644944190979 1
-0.203700438141822815 0.0925909504294395447 0.049077644944190979 1
-0.166663989424705505 0.0925909504294395447 0.049077644944190979 1
-0.129627540707588196 0.0925909504294395447 0.049077644944190979 1
-0.0925910994410514832 0.0925909504294395447 0.049077644944190979 1
-0.055554661899805069 0.0925909504294395447 0.049077644944190979 1
-0.0185182206332683563 0.0925909504294395447 0.049077644944190979 1
0.0185182206332683563 0.0925909504294395447 0.049077644944190979 1
0.055554661899805069 0.0925909504294395447 0.049077644944190979 1
0.0925910994410514832 0.0925909504294395447 0.049077644944190979 1
0.129627540707588196 0.0925909504294395447 0.049077644944190979 1
0.166663989424705505 0.0925909504294395447 0.049077644944190979 1
0.203700438141822815 0.0925909504294395447 0.049077644944190979 1
0.240736871957778931 0.0925909504294395447 0.049077644944190979 1
0.27777332067489624 0.0925909504294395447 0.049077644944190979 1
0.31480976939201355 0.0925909504294395447 0.049077644944190979 1
0.351846188306808472 0.0925909504294395447 0.049077644944190979 1
-0.351846188306808472 0.129627391695976257 0.049077644944190979 1
-0.31480976939201355 0.129627391695976257 0.049077644944190979 1
-0.27777332067489624 0.129627391695976257 0.049077644944190979 1
-0.240736871957778931 0.129627391695976257 0.049077644944190979 1
-0.203700438141822815 0.129627391695976257 0.049077644944190979 1
-0.166663989424705505 0.129627391695976257 0.049077644944190979 1
-0.129627540707588196 0.129627391695976257 0.049077644944190979 1
-0.0925910994410514832 0.129627391695976257 0.049077644944190979 1
-0.055554661899805069 0.129627391695976257 0.049077644944190979 1
-0.0185182206332683563 0.129627391695976257 0.049077644944190979 1
0.0185182206332683563 0.129627391695976257 0.049077644944190979 1
0.055554661899805069 0.129627391695976257 0.049077644944190979 1
0.0925910994410514832 0.129627391695976257 0.049077644944190979 1
0.129627540707588196 0.129627391695976257 0.049077644944190979 1
0.166663989424705505 0.129627391695976257 0.049077644944190979 1
0.203700438141822815 0.129627391695976257 0.049077644944190979 1
0.240736871957778931 0.129627391695976257 0.049077644944190979 1
0.27777332067489624 0.129627391695976257 0.049077644944190979 1
0.31480976939201355 0.129627391695976257 0.049077644944190979 1
0.351846188306808472 0.129627391695976257 0.049077644944190979 1
-0.351846188306808472 0.166663840413093567 0.049077644944190979 1
-0.31480976939201355 0.166663840413093567 0.049077644944190979 1
-0.27777332067489624 0.166663840413093567 0.049077644944190979 1
-0.240736871957778931 0.166663840413093567 0.049077644944190979 1
-0.203700438141822815 0.166663840413093567 0.049077644944190979 1
-0.166663989424705505 0.166663840413093567 0.049077644944190979 1
-0.129627540707588196 0.166663840413093567 0.049077644944190979 1
-0.0925910994410514832 0.166663840413093567 0.049077644944190979 1
-0.055554661899805069 0.166663840413093567 0.049077644944190979 1
-0.0185182206332683563 0.166663840413093567 0.049077644944190979 1
0.0185182206332683563 0.166663840413093567 0.049077644944190979 1
0.055554661899805069 0.166663840413093567 0.049077644944190979 1
0.0925910994410514832 0.166663840413093567 0.049077644944190979 1
0.129627540707588196 0.166663840413093567 0.049077644944190979 1
0.166663989424705505 0.166663840413093567 0.049077644944190979 1
0.203700438141822815 0.166663840413093567 0.049077644944190979 1
0.240736871957778931 0.166663840413093567 0.049077644944190979 1
0.27777332067489624 0.166663840413093567 0.049077644944190979 1
0.31480976939201355 0.166663840413093567 0.049077644944190979 1
0.351846188306808472 0.166663840413093567 0.049077644944190979 1
-0.351846188306808472 0.203700289130210876 0.049077644944190979 1
-0.31480976939201355 0.203700289130210876 0.049077644944190979 1
-0.27777332067489624 0.203700289130210876 0.049077644944190979 1
-0.240736871957778931 0.203700289130210876 0.049077644944190979 1
-0.203700438141822815 0.203700289130210876 0.049077644944190979 1
-0.166663989424705505 0.203700289130210876 0.049077644944190979 1
-0.129627540707588196 0.203700289130210876 0.049077644944190979 1
-0.0925910994410514832 0.203700289130210876 0.049077644944190979 1
-0.055554661899805069 0.203700289130210876 0.049077644944190979 1
-0.0185182206332683563 0.203700289130210876 0.049077644944190979 1
0.0185182206332683563 0.203700289130210876 0.049077644944190979 1
0.055554661899805069 0.203700289130210876 0.049077644944190979 1
0.0925910994410514832 0.203700289130210876 0.049077644944190979 1
0.129627540707588196 0.203700289130210876 0.049077644944190979 1
0.166663989424705505 0.203700289130210876 0.049077644944190979 1
0.203700438141822815 0.203700289130210876 0.049077644944190979 1
0.240736871957778931 0.203700289130210876 0.049077644944190979 1
0.27777332067489624 0.203700289130210876 0.049077644944190979 1
0.31480976939201355 0.203700289130210876 0.049077644944190979 1
0.351846188306808472 0.203700289130210876 0.049077644944190979 1
-0.351846188306808472 0.240736722946166992 0.049077644944190979 1
-0.31480976939201355 0.240736722946166992 0.049077644944190979 1
-0.27777332067489624 0.240736722946166992 0.049077644944190979 1
-0.240736871957778931 0.240736722946166992 0.049077644944190979 1
-0.203700438141822815 0.240736722946166992 0.049077644944190979 1
-0.166663989424705505 0.240736722946166992 0.049077644944190979 1
-0.129627540707588196 0.240736722946166992 0.049077644944190979 1
-0.0925910994410514832 0.240736722946166992 0.049077644944190979 1
-0.055554661899805069 0.240736722946166992 0.049077644944190979 1
-0.0185182206332683563 0.240736722946166992 0.049077644944190979 1
0.0185182206332683563 0.240736722946166992 0.049077644944190979 1
0.055554661899805069 0.240736722946166992 0.049077644944190979 1
0.0925910994410514832 0.240736722946166992 0.049077644944190979 1
0.129627540707588196 0.240736722946166992 0.049077644944190979 1
0.166663989424705505 0.240736722946166992 0.049077644944190979 1
0.203700438141822815 0.240736722946166992 0.049077644944190979 1
0.240736871957778931 0.240736722946166992 0.049077644944190979 1
0.27777332067489624 0.240736722946166992 0.049077644944190979 1
0.31480976939201355 0.240736722946166992 0.049077644944190979 1
0.351846188306808472 0.240736722946166992 0.049077644944190979 1
-0.351846188306808472 0.277773171663284302 0.049077644944190979 1
-0.31480976939201355 0.277773171663284302 0.049077644944190979 1
-0.27777332067489624 0.277773171663284302 0.049077644944190979 1
-0.240736871957778931 0.277773171663284302 0.049077644944190979 1
-0.203700438141822815 0.277773171663284302 0.049077644944190979 1
-0.166663989424705505 0.277773171663284302 0.049077644944190979 1
-0.129627540707588196 0.277773171663284302 0.049077644944190979 1
-0.0925910994410514832 0.277773171663284302 0.049077644944190979 1
-0.055554661899805069 0.277773171663284302 0.049077644944190979 1
-0.0185182206332683563 0.277773171663284302 0.049077644944190979 1
0.0185182206332683563 0.277773171663284302 0.049077644944190979 1
0.055554661899805069 0.277773171663284302 0.049077644944190979 1
0.0925910994410514832 0.277773171663284302 0.049077644944190979 1
0.129627540707588196 0.277773171663284302 0.049077644944190979 1
0.166663989424705505 0.277773171663284302 0.049077644944190979 1
0.203700438141822815 0.277773171663284302 0.049077644944190979 1
0.240736871957778931 0.277773171663284302 0.049077644944190979 1
0.27777332067489624 0.277773171663284302 0.049077644944190979 1
0.31480976939201355 0.277773171663284302 0.049077644944190979 1
0.351846188306808472 0.277773171663284302 0.049077644944190979 1
-0.351846188306808472 0.314809620380401611 0.049077644944190979 1
-0.31480976939201355 0.314809620380401611 0.049077644944190979 1
-0.27777332067489624 0.314809620380401611 0.049077644944190979 1
-0.240736871957778931 0.314809620380401611 0.049077644944190979 1
-0.203700438141822815 0.314809620380401611 0.049077644944190979 1
-0.166663989424705505 0.314809620380401611 0.049077644944190979 1
-0.129627540707588196 0.314809620380401611 0.049077644944190979 1
-0.0925910994410514832 0.314809620380401611 0.049077644944190979 1
-0.055554661899805069 0.314809620380401611 0.049077644944190979 1
-0.0185182206332683563 0.314809620380401611 0.049077644944190979 1
0.0185182206332683563 0.314809620380401611 0.049077644944190979 1
0.055554661899805069 0.314809620380401611 0.049077644944190979 1
0.0925910994410514832 0.314809620380401611 0.049077644944190979 1
0.129627540707588196 0.314809620380401611 0.049077644944190979 1
0.166663989424705505 0.314809620380401611 0.049077644944190979 1
0.203700438141822815 0.314809620380401611 0.049077644944190979 1
0.240736871957778931 0.314809620380401611 0.049077644944190979 1
0.27777332067489624 0.314809620380401611 0.049077644944190979 1
0.31480976939201355 0.314809620380401611 0.049077644944190979 1
0.351846188306808472 0.314809620380401611 0.049077644944190979 1
-0.351846188306808472 0.351846039295196533 0.049077644944190979 1
-0.31480976939201355 0.351846039295196533 0.049077644944190979 1
-0.27777332067489624 0.351846039295196533 0.049077644944190979 1
-0.240736871957778931 0.351846039295196533 0.049077644944190979 1
-0.203700438141822815 0.351846039295196533 0.049077644944190979 1
-0.166663989424705505 0.351846039295196533 0.049077644944190979 1
-0.129627540707588196 0.351846039295196533 0.049077644944190979 1
-0.0925910994410514832 0.351846039295196533 0.049077644944190979 1
-0.055554661899805069 0.351846039295196533 0.049077644944190979 1
-0.0185182206332683563 0.351846039295196533 0.049077644944190979 1
0.0185182206332683563 0.351846039295196533 0.049077644944190979 1
0.055554661899805069 0.351846039295196533 0.049077644944190979 1
0.0925910994410514832 0.351846039295196533 0.049077644944190979 1
0.129627540707588196 0.351846039295196533 0.049077644944190979 1
0.166663989424705505 0.351846039295196533 0.049077644944190979 1
0.203700438141822815 0.351846039295196533 0.049077644944190979 1
0.240736871957778931 0.351846039295196533 0.049077644944190979 1
0.27777332067489624 0.351846039295196533 0.049077644944190979 1
0.31480976939201355 0.351846039295196533 0.049077644944190979 1
0.351846188306808472 0.351846039295196533 0.049077644944190979 1
0.351846188306808472 -1.46846502957487246e-07 -0.049077644944190979 2
0.332782208919525146 0.114244125783443451 -0.049077644944190979 2
0.277656108140945435 0.216108262538909912 -0.049077644944190979 2
0.192441627383232117 0.294553697109222412 -0.049077644944190979 2
0.0863731354475021362 0.341079622507095337 -0.049077644944190979 2
-0.0290552284568548203 0.350644320249557495 -0.049077644944190979 2
-0.141335010528564453 0.322211205959320068 -0.049077644944190979 2
-0.238298952579498291 0.258861511945724487 -0.049077644944190979 2
-0.309439480304718018 0.167460143566131592 -0.049077644944190979 2
-0.347047477960586548 0.0579118318855762482 -0.049077644944190979 2
-0.347047477960586548 -0.0579121261835098267 -0.049077644944190979 2
-0.309439480304718018 -0.167460426688194275 -0.049077644944190979 2
-0.238298952579498291 -0.258861809968948364 -0.049077644944190979 2
-0.141335010528564453 -0.322211503982543945 -0.049077644944190979 2
-0.0290552284568548203 -0.350644618272781372 -0.049077644944190979 2
0.0863731354475021362 -0.341079920530319214 -0.049077644944190979 2
0.192441627383232117 -0.294553995132446289 -0.049077644944190979 2
0.277656108140945435 -0.216108560562133789 -0.049077644944190979 2
0.332782208919525146 -0.114244416356086731 -0.049077644944190979 2
0.351846188306808472 -1.46846502957487246e-07 -0.049077644944190979 2
0.351846188306808472 -1.46846502957487246e-07 -0.0439115762710571289 2
0.332782208919525146 0.114244125783443451 -0.0439115762710571289 2
0.277656108140945435 0.216108262538909912 -0.0439115762710571289 2
0.192441627383232117 0.294553697109222412 -0.0439115762710571289 2
0.0863731354475021362 0.341079622507095337 -0.0439115762710571289 2
-0.0290552284568548203 0.350644320249557495 -0.0439115762710571289 2
-0.141335010528564453 0.322211205959320068 -0.0439115762710571289 2
-0.238298952579498291 0.258861511945724487 -0.0439115762710571289 2
-0.309439480304718018 0.167460143566131592 -0.0439115762710571289 2
-0.347047477960586548 0.0579118318855762482 -0.0439115762710571289 2
-0.347047477960586548 -0.0579121261835098267 -0.0439115762710571289 2
-0.309439480304718018 -0.167460426688194275 -0.0439115762710571289 2
-0.238298952579498291 -0.258861809968948364 -0.0439115762710571289 2
-0.141335010528564453 -0.322211503982543945 -0.0439115762710571289 2
-0.0290552284568548203 -0.350644618272781372 -0.0439115762710571289 2
0.0863731354475021362 -0.341079920530319214 -0.0439115762710571289 2
0.192441627383232117 -0.294553995132446289 -0.0439115762710571289 2
0.277656108140945435 -0.216108560562133789 -0.0439115762710571289 2
0.332782208919525146 -0.114244416356086731 -0.0439115762710571289 2
0.351846188306808472 -1.46846502957487246e-07 -0.0439115762710571289 2
0.351846188306808472 -1.46846502957487246e-07 -0.0387455113232135773 2
0.332782208919525146 0.114244125783443451 -0.0387455113232135773 2
0.277656108140945435 0.216108262538909912 -0.0387455113232135773 2
0.192441627383232117 0.294553697109222412 -0.0387455113232135773 2
0.0863731354475021362 0.341079622507095337 -0.0387455113232135773 2
-0.0290552284568548203 0.350644320249557495 -0.0387455113232135773 2
-0.141335010528564453 0.322211205959320068 -0.0387455113232135773 2
-0.238298952579498291 0.258861511945724487 -0.0387455113232135773 2
-0.309439480304718018 0.167460143566131592 -0.0387455113232135773 2
-0.347047477960586548 0.0579118318855762482 -0.0387455113232135773 2
-0.347047477960586548 -0.0579121261835098267 -0.0387455113232135773 2
-0.309439480304718018 -0.167460426688194275 -0.0387455113232135773 2
-0.238298952579498291 -0.258861809968948364 -0.0387455113232135773 2
-0.141335010528564453 -0.322211503982543945 -0.0387455113232135773 2
-0.0290552284568548203 -0.350644618272781372 -0.0387455113232135773 2
0.0863731354475021362 -0.341079920530319214 -0.0387455113232135773 2
0.192441627383232117 -0.294553995132446289 -0.0387455113232135773 2
0.277656108140945435 -0.216108560562133789 -0.0387455113232135773 2
0.332782208919525146 -0.114244416356086731 -0.0387455113232135773 2
0.351846188306808472 -1.46846502957487246e-07 -0.0387455113232135773 2
0.351846188306808472 -1.46846502957487246e-07 -0.0335794426500797272 2
0.332782208919525146 0.114244125783443451 -0.0335794426500797272 2
0.277656108140945435 0.216108262538909912 -0.0335794426500797272 2
0.192441627383232117 0.294553697109222412 -0.0335794426500797272 2
0.0863731354475021362 0.341079622507095337 -0.0335794426500797272 2
-0.0290552284568548203 0.350644320249557495 -0.0335794426500797272 2
-0.141335010528564453 0.322211205959320068 -0.0335794426500797272 2
-0.238298952579498291 0.258861511945724487 -0.0335794426500797272 2
-0.309439480304718018 0.167460143566131592 -0.0335794426500797272 2
-0.347047477960586548 0.0579118318855762482 -0.0335794426500797272 2
-0.347047477960586548 -0.0579121261835098267 -0.0335794426500797272 2
-0.309439480304718018 -0.167460426688194275 -0.0335794426500797272 2
-0.238298952579498291 -0.258861809968948364 -0.0335794426500797272 2
-0.141335010528564453 -0.322211503982543945 -0.0335794426500797272 2
-0.0290552284568548203 -0.350644618272781372 -0.0335794426500797272 2
0.0863731354475021362 -0.341079920530319214 -0.0335794426500797272 2
0.192441627383232117 -0.294553995132446289 -0.0335794426500797272 2
0.277656108140945435 -0.216108560562133789 -0.0335794426500797272 2
0.332782208919525146 -0.114244416356086731 -0.0335794426500797272 2
0.351846188306808472 -1.46846502957487246e-07 -0.0335794426500797272 2
0.351846188306808472 -1.46846502957487246e-07 -0.0284133739769458771 2
0.332782208919525146 0.114244125783443451 -0.0284133739769458771 2
0.277656108140945435 0.216108262538909912 -0.0284133739769458771 2
0.192441627383232117 0.294553697109222412 -0.0284133739769458771 2
0.0863731354475021362 0.341079622507095337 -0.0284133739769458771 2
-0.0290552284568548203 0.350644320249557495 -0.0284133739769458771 2
-0.141335010528564453 0.322211205959320068 -0.0284133739769458771 2
-0.238298952579498291 0.258861511945724487 -0.0284133739769458771 2
-0.309439480304718018 0.167460143566131592 -0.0284133739769458771 2
-0.347047477960586548 0.0579118318855762482 -0.0284133739769458771 2
-0.347047477960586548 -0.0579121261835098267 -0.0284133739769458771 2
-0.309439480304718018 -0.167460426688194275 -0.0284133739769458771 2
-0.238298952579498291 -0.258861809968948364 -0.0284133739769458771 2
-0.141335010528564453 -0.322211503982543945 -0.0284133739769458771 2
-0.0290552284568548203 -0.350644618272781372 -0.0284133739769458771 2
0.0863731354475021362 -0.341079920530319214 -0.0284133739769458771 2
0.192441627383232117 -0.294553995132446289 -0.0284133739769458771 2
0.277656108140945435 -0.216108560562133789 -0.0284133739769458771 2
0.332782208919525146 -0.114244416356086731 -0.0284133739769458771 2
0.351846188306808472 -1.46846502957487246e-07 -0.0284133739769458771 2
0.351846188306808472 -1.46846502957487246e-07 -0.0232473071664571762 2
0.332782208919525146 0.114244125783443451 -0.0232473071664571762 2
0.277656108140945435 0.216108262538909912 -0.0232473071664571762 2
0.192441627383232117 0.294553697109222412 -0.0232473071664571762 2
0.0863731354475021362 0.341079622507095337 -0.0232473071664571762 2
-0.0290552284568548203 0.350644320249557495 -0.0232473071664571762 2
-0.141335010528564453 0.322211205959320068 -0.0232473071664571762 2
-0.238298952579498291 0.258861511945724487 -0.0232473071664571762 2
-0.309439480304718018 0.167460143566131592 -0.0232473071664571762 2
-0.347047477960586548 0.0579118318855762482 -0.0232473071664571762 2
-0.347047477960586548 -0.0579121261835098267 -0.0232473071664571762 2
-0.309439480304718018 -0.167460426688194275 -0.0232473071664571762 2
-0.238298952579498291 -0.258861809968948364 -0.0232473071664571762 2
-0.141335010528564453 -0.322211503982543945 -0.0232473071664571762 2
-0.0290552284568548203 -0.350644618272781372 -0.0232473071664571762 2
0.0863731354475021362 -0.341079920530319214 -0.0232473071664571762 2
0.192441627383232117 -0.294553995132446289 -0.0232473071664571762 2
0.277656108140945435 -0.216108560562133789 -0.0232473071664571762 2
0.332782208919525146 -0.114244416356086731 -0.0232473071664571762 2
0.351846188306808472 -1.46846502957487246e-07 -0.0232473071664571762 2
0.351846188306808472 -1.46846502957487246e-07 -0.0180812384933233261 2
0.332782208919525146 0.114244125783443451 -0.0180812384933233261 2
0.277656108140945435 0.216108262538909912 -0.0180812384933233261 2
0.192441627383232117 0.294553697109222412 -0.0180812384933233261 2
0.0863731354475021362 0.341079622507095337 -0.0180812384933233261 2
-0.0290552284568548203 0.350644320249557495 -0.0180812384933233261 2
-0.141335010528564453 0.322211205959320068 -0.0180812384933233261 2
-0.238298952579498291 0.258861511945724487 -0.0180812384933233261 2
-0.309439480304718018 0.167460143566131592 -0.0180812384933233261 2
-0.347047477960586548 0.0579118318855762482 -0.0180812384933233261 2
-0.347047477960586548 -0.0579121261835098267 -0.0180812384933233261 2
-0.309439480304718018 -0.167460426688194275 -0.0180812384933233261 2
-0.238298952579498291 -0.258861809968948364 -0.0180812384933233261 2
-0.141335010528564453 -0.322211503982543945 -0.0180812384933233261 2
-0.0290552284568548203 -0.350644618272781372 -0.0180812384933233261 2
0.0863731354475021362 -0.341079920530319214 -0.0180812384933233261 2
0.192441627383232117 -0.294553995132446289 -0.0180812384933233261 2
0.277656108140945435 -0.216108560562133789 -0.0180812384933233261 2
0.332782208919525146 -0.114244416356086731 -0.0180812384933233261 2
0.351846188306808472 -1.46846502957487246e-07 -0.0180812384933233261 2
0.351846188306808472 -1.46846502957487246e-07 -0.0129151688888669014 2
0.332782208919525146 0.114244125783443451 -0.0129151688888669014 2
0.277656108140945435 0.216108262538909912 -0.0129151688888669014 2
0.192441627383232117 0.294553697109222412 -0.0129151688888669014 2
0.0863731354475021362 0.341079622507095337 -0.0129151688888669014 2
-0.0290552284568548203 0.350644320249557495 -0.0129151688888669014 2
-0.141335010528564453 0.322211205959320068 -0.0129151688888669014 2
-0.238298952579498291 0.258861511945724487 -0.0129151688888669014 2
-0.309439480304718018 0.167460143566131592 -0.0129151688888669014 2
-0.347047477960586548 0.0579118318855762482 -0.0129151688888669014 2
-0.347047477960586548 -0.0579121261835098267 -0.0129151688888669014 2
-0.309439480304718018 -0.167460426688194275 -0.0129151688888669014 2
-0.238298952579498291 -0.258861809968948364 -0.0129151688888669014 2
-0.141335010528564453 -0.322211503982543945 -0.0129151688888669014 2
-0.0290552284568548203 -0.350644618272781372 -0.0129151688888669014 2
0.0863731354475021362 -0.341079920530319214 -0.0129151688888669014 2
0.192441627383232117 -0.294553995132446289 -0.0129151688888669014 2
0.277656108140945435 -0.216108560562133789 -0.0129151688888669014 2
0.332782208919525146 -0.114244416356086731 -0.0129151688888669014 2
0.351846188306808472 -1.46846502957487246e-07 -0.0129151688888669014 2
0.351846188306808472 -1.46846502957487246e-07 -0.00774910347536206245 2
0.332782208919525146 0.114244125783443451 -0.00774910347536206245 2
0.277656108140945435 0.216108262538909912 -0.00774910347536206245 2
0.192441627383232117 0.294553697109222412 -0.00774910347536206245 2
0.0863731354475021362 0.341079622507095337 -0.00774910347536206245 2
-0.0290552284568548203 0.350644320249557495 -0.00774910347536206245 2
-0.141335010528564453 0.322211205959320068 -0.00774910347536206245 2
-0.238298952579498291 0.258861511945724487 -0.00774910347536206245 2
-0.309439480304718018 0.167460143566131592 -0.00774910347536206245 2
-0.347047477960586548 0.0579118318855762482 -0.00774910347536206245 2
-0.347047477960586548 -0.0579121261835098267 -0.00774910347536206245 2
-0.309439480304718018 -0.167460426688194275 -0.00774910347536206245 2
-0.238298952579498291 -0.258861809968948364 -0.00774910347536206245 2
-0.141335010528564453 -0.322211503982543945 -0.00774910347536206245 2
-0.0290552284568548203 -0.350644618272781372 -0.00774910347536206245 2
0.0863731354475021362 -0.341079920530319214 -0.00774910347536206245 2
0.192441627383232117 -0.294553995132446289 -0.00774910347536206245 2
0.277656108140945435 -0.216108560562133789 -0.00774910347536206245 2
0.332782208919525146 -0.114244416356086731 -0.00774910347536206245 2
0.351846188306808472 -1.46846502957487246e-07 -0.00774910347536206245 2
0.351846188306808472 -1.46846502957487246e-07 -0.00258303363807499409 2
0.332782208919525146 0.114244125783443451 -0.00258303363807499409 2
0.277656108140945435 0.216108262538909912 -0.00258303363807499409 2
0.192441627383232117 0.294553697109222412 -0.00258303363807499409 2
0.0863731354475021362 0.341079622507095337 -0.00258303363807499409 2
-0.0290552284568548203 0.350644320249557495 -0.00258303363807499409 2
-0.141335010528564453 0.322211205959320068 -0.00258303363807499409 2
-0.238298952579498291 0.258861511945724487 -0.00258303363807499409 2
-0.309439480304718018 0.167460143566131592 -0.00258303363807499409 2
-0.347047477960586548 0.0579118318855762482 -0.00258303363807499409 2
-0.347047477960586548 -0.0579121261835098267 -0.00258303363807499409 2
-0.309439480304718018 -0.167460426688194275 -0.00258303363807499409 2
-0.238298952579498291 -0.258861809968948364 -0.00258303363807499409 2
-0.141335010528564453 -0.322211503982543945 -0.00258303363807499409 2
-0.0290552284568548203 -0.350644618272781372 -0.00258303363807499409 2
0.0863731354475021362 -0.341079920530319214 -0.00258303363807499409 2
0.192441627383232117 -0.294553995132446289 -0.00258303363807499409 2
0.277656108140945435 -0.216108560562133789 -0.00258303363807499409 2
0.332782208919525146 -0.114244416356086731 -0.00258303363807499409 2
0.351846188306808472 -1.46846502957487246e-07 -0.00258303363807499409 2
0.351846188306808472 -1.46846502957487246e-07 0.00258303224109113216 2
0.332782208919525146 0.114244125783443451 0.00258303224109113216 2
0.277656108140945435 0.216108262538909912 0.00258303224109113216 2
0.192441627383232117 0.294553697109222412 0.00258303224109113216 2
0.0863731354475021362 0.341079622507095337 0.00258303224109113216 2
-0.0290552284568548203 0.350644320249557495 0.00258303224109113216 2
-0.141335010528564453 0.322211205959320068 0.00258303224109113216 2
-0.238298952579498291 0.258861511945724487 0.00258303224109113216 2
-0.309439480304718018 0.167460143566131592 0.00258303224109113216 2
-0.347047477960586548 0.0579118318855762482 0.00258303224109113216 2
-0.347047477960586548 -0.0579121261835098267 0.00258303224109113216 2
-0.309439480304718018 -0.167460426688194275 0.00258303224109113216 2
-0.238298952579498291 -0.258861809968948364 0.00258303224109113216 2
-0.141335010528564453 -0.322211503982543945 0.00258303224109113216 2
-0.0290552284568548203 -0.350644618272781372 0.00258303224109113216 2
0.0863731354475021362 -0.341079920530319214 0.00258303224109113216 2
0.192441627383232117 -0.294553995132446289 0.00258303224109113216 2
0.277656108140945435 -0.216108560562133789 0.00258303224109113216 2
0.332782208919525146 -0.114244416356086731 0.00258303224109113216 2
0.351846188306808472 -1.46846502957487246e-07 0.00258303224109113216 2
0.351846188306808472 -1.46846502957487246e-07 0.00774910161271691322 2
0.332782208919525146 0.114244125783443451 0.00774910161271691322 2
0.277656108140945435 0.216108262538909912 0.00774910161271691322 2
0.192441627383232117 0.294553697109222412 0.00774910161271691322 2
0.0863731354475021362 0.341079622507095337 0.00774910161271691322 2
-0.0290552284568548203 0.350644320249557495 0.00774910161271691322 2
-0.141335010528564453 0.322211205959320068 0.00774910161271691322 2
-0.238298952579498291 0.258861511945724487 0.00774910161271691322 2
-0.309439480304718018 0.167460143566131592 0.00774910161271691322 2
-0.347047477960586548 0.0579118318855762482 0.00774910161271691322 2
-0.347047477960586548 -0.0579121261835098267 0.00774910161271691322 2
-0.309439480304718018 -0.167460426688194275 0.00774910161271691322 2
-0.238298952579498291 -0.258861809968948364 0.00774910161271691322 2
-0.141335010528564453 -0.322211503982543945 0.00774910161271691322 2
-0.0290552284568548203 -0.350644618272781372 0.00774910161271691322 2
0.0863731354475021362 -0.341079920530319214 0.00774910161271691322 2
0.192441627383232117 -0.294553995132446289 0.00774910161271691322 2
0.277656108140945435 -0.216108560562133789 0.00774910161271691322 2
0.332782208919525146 -0.114244416356086731 0.00774910161271691322 2
0.351846188306808472 -1.46846502957487246e-07 0.00774910161271691322 2
0.351846188306808472 -1.46846502957487246e-07 0.0129151679575443268 2
0.332782208919525146 0.114244125783443451 0.0129151679575443268 2
0.277656108140945435 0.216108262538909912 0.0129151679575443268 2
0.192441627383232117 0.294553697109222412 0.0129151679575443268 2
0.0863731354475021362 0.341079622507095337 0.0129151679575443268 2
-0.0290552284568548203 0.350644320249557495 0.0129151679575443268 2
-0.141335010528564453 0.322211205959320068 0.0129151679575443268 2
-0.238298952579498291 0.258861511945724487 0.0129151679575443268 2
-0.309439480304718018 0.167460143566131592 0.0129151679575443268 2
-0.347047477960586548 0.0579118318855762482 0.0129151679575443268 2
-0.347047477960586548 -0.0579121261835098267 0.0129151679575443268 2
-0.309439480304718018 -0.167460426688194275 0.0129151679575443268 2
-0.238298952579498291 -0.258861809968948364 0.0129151679575443268 2
-0.141335010528564453 -0.322211503982543945 0.0129151679575443268 2
-0.0290552284568548203 -0.350644618272781372 0.0129151679575443268 2
0.0863731354475021362 -0.341079920530319214 0.0129151679575443268 2
0.192441627383232117 -0.294553995132446289 0.0129151679575443268 2
0.277656108140945435 -0.216108560562133789 0.0129151679575443268 2
0.332782208919525146 -0.114244416356086731 0.0129151679575443268 2
0.351846188306808472 -1.46846502957487246e-07 0.0129151679575443268 2
0.351846188306808472 -1.46846502957487246e-07 0.0180812403559684753 2
0.332782208919525146 0.114244125783443451 0.0180812403559684753 2
0.277656108140945435 0.216108262538909912 0.0180812403559684753 2
0.192441627383232117 0.294553697109222412 0.0180812403559684753 2
0.0863731354475021362 0.341079622507095337 0.0180812403559684753 2
-0.0290552284568548203 0.350644320249557495 0.0180812403559684753 2
-0.141335010528564453 0.322211205959320068 0.0180812403559684753 2
-0.238298952579498291 0.258861511945724487 0.0180812403559684753 2
-0.309439480304718018 0.167460143566131592 0.0180812403559684753 2
-0.347047477960586548 0.0579118318855762482 0.0180812403559684753 2
-0.347047477960586548 -0.0579121261835098267 0.0180812403559684753 2
-0.309439480304718018 -0.167460426688194275 0.0180812403559684753 2
-0.238298952579498291 -0.258861809968948364 0.0180812403559684753 2
-0.141335010528564453 -0.322211503982543945 0.0180812403559684753 2
-0.0290552284568548203 -0.350644618272781372 0.0180812403559684753 2
0.0863731354475021362 -0.341079920530319214 0.0180812403559684753 2
0.192441627383232117 -0.294553995132446289 0.0180812403559684753 2
0.277656108140945435 -0.216108560562133789 0.0180812403559684753 2
0.332782208919525146 -0.114244416356086731 0.0180812403559684753 2
0.351846188306808472 -1.46846502957487246e-07 0.0180812403559684753 2
0.351846188306808472 -1.46846502957487246e-07 0.0232473071664571762 2
0.332782208919525146 0.114244125783443451 0.0232473071664571762 2
0.277656108140945435 0.216108262538909912 0.0232473071664571762 2
0.192441627383232117 0.294553697109222412 0.0232473071664571762 2
0.0863731354475021362 0.341079622507095337 0.0232473071664571762 2
-0.0290552284568548203 0.350644320249557495 0.0232473071664571762 2
-0.141335010528564453 0.322211205959320068 0.0232473071664571762 2
-0.238298952579498291 0.258861511945724487 0.0232473071664571762 2
-0.309439480304718018 0.167460143566131592 0.0232473071664571762 2
-0.347047477960586548 0.0579118318855762482 0.0232473071664571762 2
-0.347047477960586548 -0.0579121261835098267 0.0232473071664571762 2
-0.309439480304718018 -0.167460426688194275 0.0232473071664571762 2
-0.238298952579498291 -0.258861809968948364 0.0232473071664571762 2
-0.141335010528564453 -0.322211503982543945 0.0232473071664571762 2
-0.0290552284568548203 -0.350644618272781372 0.0232473071664571762 2
0.0863731354475021362 -0.341079920530319214 0.0232473071664571762 2
0.192441627383232117 -0.294553995132446289 0.0232473071664571762 2
0.277656108140945435 -0.216108560562133789 0.0232473071664571762 2
0.332782208919525146 -0.114244416356086731 0.0232473071664571762 2
0.351846188306808472 -1.46846502957487246e-07 0.0232473071664571762 2
0.351846188306808472 -1.46846502957487246e-07 0.0284133721143007278 2
0.332782208919525146 0.114244125783443451 0.0284133721143007278 2
0.277656108140945435 0.216108262538909912 0.0284133721143007278 2
0.192441627383232117 0.294553697109222412 0.0284133721143007278 2
0.0863731354475021362 0.341079622507095337 0.0284133721143007278 2
-0.0290552284568548203 0.350644320249557495 0.0284133721143007278 2
-0.141335010528564453 0.322211205959320068 0.0284133721143007278 2
-0.238298952579498291 0.258861511945724487 0.0284133721143007278 2
-0.309439480304718018 0.167460143566131592 0.0284133721143007278 2
-0.347047477960586548 0.0579118318855762482 0.0284133721143007278 2
-0.347047477960586548 -0.0579121261835098267 0.0284133721143007278 2
-0.309439480304718018 -0.167460426688194275 0.0284133721143007278 2
-0.238298952579498291 -0.258861809968948364 0.0284133721143007278 2
-0.141335010528564453 -0.322211503982543945 0.0284133721143007278 2
-0.0290552284568548203 -0.350644618272781372 0.0284133721143007278 2
0.0863731354475021362 -0.341079920530319214 0.0284133721143007278 2
0.192441627383232117 -0.294553995132446289 0.0284133721143007278 2
0.277656108140945435 -0.216108560562133789 0.0284133721143007278 2
0.332782208919525146 -0.114244416356086731 0.0284133721143007278 2
0.351846188306808472 -1.46846502957487246e-07 0.0284133721143007278 2
0.351846188306808472 -1.46846502957487246e-07 0.0335794389247894287 2
0.332782208919525146 0.114244125783443451 0.0335794389247894287 2
0.277656108140945435 0.216108262538909912 0.0335794389247894287 2
0.192441627383232117 0.294553697109222412 0.0335794389247894287 2
0.0863731354475021362 0.341079622507095337 0.0335794389247894287 2
-0.0290552284568548203 0.350644320249557495 0.0335794389247894287 2
-0.141335010528564453 0.322211205959320068 0.0335794389247894287 2
-0.238298952579498291 0.258861511945724487 0.0335794389247894287 2
